# .PCD v0.7 - Point Cloud Data file format
VERSION 0.7
FIELDS x y z rgba
SIZE 4 4 4 4
TYPE F F F U
COUNT 1 1 1 1
WIDTH 1071
HEIGHT 1
VIEWPOINT 0 0 0 1 0 0 0
POINTS 1071
DATA ascii
-0.31653613 -0.14327435 -0.059770536 16250609
-0.31689262 -0.11588916 -0.059699915 16711166
-0.31781638 -0.096173733 -0.058474623 16711422
-0.31865865 -0.086393215 -0.057190839 16711679
-0.47950602 -0.030167937 -0.05134546 3684411
-0.47988653 -0.022863694 -0.052307848 3684424
-0.17820565 0.064480543 -0.052655552 3224120
-0.17842993 0.074328855 -0.0523533 3487035
0.28730041 0.077910617 -0.050746616 3289133
-0.17856449 0.080237828 -0.052171949 3814976
0.34116098 0.085074224 -0.052492723 4803387
-0.11876334 0.09340407 -0.056080256 3879498
0.34062657 0.092668191 -0.0533241 5000768
0.30862233 0.10765603 -0.052879989 4471864
-0.26838508 0.17282777 -0.059332848 6190448
-0.38236603 0.23592389 -0.059762057 3552575
-0.44885093 0.32395923 -0.055004217 3552833
-1.191101 -0.95778286 -0.049851377 10065806
-0.43530554 -0.94772822 -0.046891935 6448729
-0.053447809 -0.92532915 -0.042766996 3748138
-0.054018132 -0.91646636 -0.042009994 3485483
-0.98374265 -0.90299827 -0.0451019 9801867
-0.97605336 -0.90630531 -0.042161383 9605005
-0.060635164 -0.90190476 -0.042563014 3616296
-0.054778568 -0.90464938 -0.041000657 3681577
-1.2083952 -0.89680183 -0.049355011 9868172
-0.98522621 -0.89518219 -0.0457846 9736846
-0.078014851 -0.89662516 -0.047502413 3420458
-0.06384863 -0.896101 -0.042965688 3616295
-1.0378731 -0.88760161 -0.047755834 9803147
-1.0264539 -0.88700795 -0.044091061 9803918
-0.99398112 -0.88998121 -0.049155712 9736589
-0.98485708 -0.8872059 -0.045774188 9672075
-0.061775811 -0.88417917 -0.041049004 3419434
0.0038119869 -0.8898533 -0.042271424 3748394
0.024157148 -0.88217717 -0.048882671 3289127
-1.0578033 -0.87443417 -0.040047809 9605006
-0.32220894 -0.87850475 -0.045951419 3486502
-0.064298339 -0.87440157 -0.040812787 3485481
0.017589303 -0.87064648 -0.049651645 3682088
0.02610649 -0.8702293 -0.046998844 3551017
-1.0582492 -0.86556613 -0.040826604 9475470
-1.0336595 -0.86339533 -0.0451352 9998477
-1.0051653 -0.86443108 -0.049783129 9606288
-0.99009484 -0.865812 -0.048084799 9931919
-0.32676145 -0.86268407 -0.046537191 3682348
-0.080296144 -0.86117411 -0.044474401 3485226
-0.06896317 -0.86075485 -0.040845018 3420459
0.017144445 -0.8647421 -0.049151864 3485482
0.02282257 -0.86446398 -0.047383331 3551015
0.037017882 -0.8637687 -0.042961992 3879466
-1.0560642 -0.85351098 -0.040824309 9474949
-1.0397432 -0.85771483 -0.046770524 9935499
-1.0057216 -0.85553998 -0.049490009 9869454
-0.99051273 -0.85988986 -0.048336908 9933197
-0.32903767 -0.8547737 -0.046830084 3551788
-0.080676362 -0.85526562 -0.043969732 3551274
0.016699584 -0.85883766 -0.048652083 3485226
0.022155277 -0.85560739 -0.046633657 3485225
0.036350589 -0.85491204 -0.042212319 3682601
-0.9802326 -0.84708416 -0.044682447 9998221
-0.32955515 -0.84582126 -0.046215624 3748396
-0.29732084 -0.84406924 -0.045597464 3814189
-0.081246689 -0.84640288 -0.043212727 3550761
-0.075580195 -0.84619319 -0.041398037 3616554
0.021265559 -0.84379852 -0.045634091 3420201
0.034588661 -0.84413368 -0.041590806 3682093
-1.0654428 -0.83351237 -0.045763526 9670535
-1.056079 -0.83471268 -0.04212153 9670024
-1.0408652 -0.83978271 -0.046179336 9673105
-1.007205 -0.83183044 -0.048708349 10066065
-0.98662645 -0.83572066 -0.047265995 9736332
-0.46890876 -0.83356607 -0.045059014 6842458
-0.33211884 -0.83293724 -0.046167146 3617324
-0.3059389 -0.83540308 -0.048732407 3747882
-0.29513234 -0.83512104 -0.043740049 3682602
-0.082197227 -0.8316316 -0.041951057 3221798
-0.076150522 -0.83733046 -0.040641032 3485738
0.020598268 -0.83494192 -0.044884421 3551275
-1.0601813 -0.82713813 -0.044201355 9539463
-1.0546224 -0.82667589 -0.042119995 9539461
-1.0043964 -0.82440543 -0.040232822 9670796
-0.98725331 -0.82683754 -0.047644153 9606030
-0.30729556 -0.82753539 -0.048606817 3682346
-0.29834712 -0.82631397 -0.044378817 3617323
0.031287227 -0.8255291 -0.040597677 3617068
-1.0139796 -0.81434262 -0.049939174 10065043
-1.0053012 -0.81686479 -0.047311276 10065807
-0.9880892 -0.81499326 -0.048148364 9802122
-0.32600367 -0.81285334 -0.041445386 3682862
-0.30713618 -0.81468862 -0.047310658 3747884
-0.092146069 -0.81227893 -0.040000312 3025188
0.018818829 -0.8113243 -0.042885292 3550760
0.024496952 -0.81104618 -0.041116759 3551532
-1.2215768 -0.80137515 -0.04379978 9408646
-1.0135864 -0.80396843 -0.047546238 9933967
-1.0086884 -0.80812085 -0.04792669 9870227
-0.32634863 -0.806885 -0.041035745 3813934
-0.3049477 -0.80574054 -0.045453247 4009516
0.018373966 -0.80541986 -0.042385507 3485479
0.024052091 -0.80514175 -0.040616974 3485992
-1.0842106 -0.79759228 -0.041429751 9473668
-1.0673749 -0.79508436 -0.049138278 9538951
-0.31069306 -0.79996306 -0.047543209 3747883
-0.30528978 -0.79982209 -0.04504703 3944492
-0.098887026 -0.79474831 -0.040687665 2170655
0.015090046 -0.79965454 -0.042769998 3551274
0.023607234 -0.79923737 -0.040117193 3485737
-1.0907156 -0.78017294 -0.045099366 9145992
-1.0678208 -0.78621638 -0.049917072 9603971
-1.010172 -0.78441131 -0.047145031 9738130
-0.34917885 -0.78954875 -0.049875718 2301725
-0.10523165 -0.78312689 -0.041859526 2170911
0.010916403 -0.78208035 -0.042154916 3681835
-1.0854096 -0.77374494 -0.043524031 8948872
-1.0117503 -0.77406073 -0.046107199 9933967
-1.0048809 -0.7781896 -0.045132548 10131603
-0.99657333 -0.77478433 -0.042309232 9868688
-0.31223246 -0.77333021 -0.045715246 3485995
-0.30700022 -0.77023 -0.043015961 3551531
-0.10602432 -0.77130866 -0.040890522 2236448
-0.0013295679 -0.77082777 -0.044692423 2892580
-1.0913152 -0.76824921 -0.046146505 9800834
-1.0523334 -0.76118153 -0.045749765 9604229
-1.0135256 -0.76485604 -0.046542503 10065038
-0.3127456 -0.76445258 -0.045105923 3486251
-0.30464068 -0.7642411 -0.041361652 3551531
-0.10642065 -0.76539952 -0.040406022 2236705
-0.0017744255 -0.76492339 -0.044192646 2892578
0.42466381 -0.76152277 -0.041265979 6576472
-1.0146372 -0.75919777 -0.045126233 9472899
-1.0063643 -0.75447994 -0.044350885 9803408
-1.0558559 -0.7466327 -0.048088431 9472901
-1.0030842 -0.74638057 -0.042878952 9672591
-0.31394291 -0.74373806 -0.04368417 3420971
-1.0135098 -0.73106474 -0.045386296 9476237
-1.0046459 -0.73655063 -0.042856105 9868942
-0.31445605 -0.73486042 -0.04307485 3617579
-1.047971 -0.7262128 -0.042435154 9869200
-1.0138806 -0.72513741 -0.045190882 9672075
-0.34190342 -0.72659713 -0.040540062 2368291
-1.0487189 -0.71425807 -0.04204103 9803407
-0.27838224 -0.70994163 -0.045974735 7104864
-1.0157349 -0.69550043 -0.044213809 9540749
-1.0162911 -0.68660933 -0.043920688 9737099
-0.27640697 -0.68045723 -0.044774868 7235680
-1.0225095 -0.67801261 -0.045444634 9148552
-0.33695945 -0.67321056 -0.047546219 2367777
-0.3288545 -0.67299902 -0.043801956 2499362
-0.27695 -0.67306852 -0.045109779 7104351
-0.14408968 -0.67594677 -0.049479526 3616295
-1.0234368 -0.66319412 -0.044956096 9539978
-0.27749303 -0.66567987 -0.045444693 7039841
-1.0389825 -0.65671647 -0.042027041 9406848
-1.023993 -0.65430307 -0.044662975 9670789
-0.33005184 -0.65228456 -0.042380203 2565151
-0.13399217 -0.65181035 -0.043632891 3813419
-1.0303967 -0.64274257 -0.046089217 9408649
-1.0337839 -0.63399869 -0.046704628 9539978
-0.49895746 -0.63526756 -0.043030187 7039072
-0.33107811 -0.63452935 -0.04116156 2434083
-0.2750124 -0.63570845 -0.045135945 7038815
-0.13496204 -0.63392615 -0.042089317 3813421
-1.0428332 -0.62554914 -0.049137112 9146761
-1.0371712 -0.62525481 -0.047320042 9081480
-1.0258473 -0.62466609 -0.043685902 9538444
-0.33142018 -0.62861091 -0.040755343 2368033
-1.0433896 -0.61665809 -0.048843991 9277579
-1.035902 -0.61527771 -0.04638866 9211783
-1.0262182 -0.61873871 -0.043490488 9146505
-0.3483142 -0.61719704 -0.04743145 2696483
-0.33750764 -0.61691505 -0.042439092 2564898
-0.27595696 -0.61559182 -0.04691942 7301728
-1.0346328 -0.60530061 -0.045457277 9473924
-0.14227386 -0.6042645 -0.041410957 3156519
-1.0427686 -0.59537411 -0.04808652 8424312
-1.0361946 -0.59547067 -0.045434434 9538435
-0.14275879 -0.59532237 -0.04063917 2959396
-1.0454292 -0.58405739 -0.047769208 9277059
-1.0339198 -0.58643234 -0.044232775 9211526
-1.0227814 -0.58287996 -0.040500928 9079429
-0.27434182 -0.58110803 -0.045943566 7170401
-0.12525396 -0.58422333 -0.047463153 3681834
-1.0506825 -0.57512337 -0.048370406 8619638
-1.0461709 -0.57220262 -0.04737838 9341825
-0.13420644 -0.57557219 -0.04951546 3288106
-0.12573485 -0.57535601 -0.046697818 3682604
-1.0410652 -0.56301713 -0.045268185 9145473
-1.0352179 -0.56568652 -0.043548822 9144964
-0.13468733 -0.56670487 -0.048750125 3090728
-0.12339187 -0.56641656 -0.044993266 3682861
-1.2679025 -0.55531973 -0.04910608 8686461
-1.0416216 -0.55412608 -0.044975065 9407105
-1.0357742 -0.55679548 -0.043255702 9341824
-0.1353285 -0.55488175 -0.047729678 3090466
-0.12387275 -0.55754924 -0.044227932 3748398
-1.2683413 -0.54847813 -0.048594151 8816508
-1.036516 -0.54494071 -0.042864874 9144705
-0.46535861 -0.54691523 -0.046705749 6840670
-1.0374432 -0.53012216 -0.042376336 9275011
-0.1336267 -0.53411919 -0.045004681 3024932
-0.12515511 -0.53390294 -0.042187039 3551789
-0.11934708 -0.53671455 -0.040563721 3682349
-1.037814 -0.52419478 -0.042180922 9013375
-0.14241889 -0.52842385 -0.047312099 2761249
-0.13112344 -0.52813554 -0.043555241 3090214
-0.1254757 -0.52799135 -0.041676812 3485485
-1.0355394 -0.51515651 -0.040979262 8948606
-0.27407432 -0.51385903 -0.048198767 7170144
-0.14902841 -0.51083332 -0.047659859 2827554
-0.13490906 -0.51047289 -0.042963788 2827300
-0.050721999 -0.50290453 -0.048913244 3222567
-1.04041 -0.48270303 -0.040813018 8946299
-1.0411518 -0.47084823 -0.040422186 8553854
-0.46306771 -0.47815433 -0.041101187 6709594
-0.21032146 -0.47573754 -0.043126334 6710365
-0.19301833 -0.47372848 -0.043434687 4998208
-0.13965647 -0.4750756 -0.040841661 2696484
-1.0415226 -0.46492085 -0.040226772 8750203
-0.027796211 -0.46197429 -0.049783982 3288619
-1.0479263 -0.45336041 -0.041653011 8946296
-0.27408674 -0.45712984 -0.04822864 6973023
-0.028369918 -0.45604685 -0.0491178 3353898
-1.0482972 -0.44743302 -0.041457597 8750710
-0.44439182 -0.44248039 -0.045326911 6512730
-0.19053431 -0.44211918 -0.043617971 5720898
-0.44394183 -0.43309689 -0.046329007 6182735
-0.20285589 -0.43434125 -0.046176188 5327164
-0.024375388 -0.43791407 -0.045315132 3550766
0.43319833 -0.43836269 -0.044145513 6708830
-0.20306545 -0.42992339 -0.045677364 5131325
0.00075715809 -0.42425364 -0.049383372 3354413
-1.239578 -0.41275582 -0.040942751 8092273
-0.27219161 -0.4121263 -0.049478102 6841435
-0.20243919 -0.4154048 -0.046888724 4998203
-0.020954562 -0.41385382 -0.040846284 3682610
0.22839272 -0.41015688 -0.046619084 6577753
0.5917291 -0.41309971 -0.047286879 6511448
-0.27273422 -0.40474337 -0.049812753 6841437
-0.19044837 -0.40519544 -0.040391143 5653829
-0.0066174418 -0.40696746 -0.04919057 3551792
0.29934075 -0.40601867 -0.044821832 6709343
0.59124398 -0.40572733 -0.046644613 6446168
-0.27414024 -0.39267784 -0.049482819 6710106
-0.01370759 -0.39262024 -0.049328074 3946037
0.369827 -0.39182791 -0.04060851 6314584
-0.20222743 -0.38565922 -0.040214747 5061178
-0.0032252194 -0.38310838 -0.04475908 4473926
0.0055610426 -0.38552603 -0.042405829 4144705
0.30085897 -0.3847259 -0.04334195 6971487
-0.20202166 -0.37167728 -0.040537685 4931902
-0.015414325 -0.37498656 -0.047346234 5393996
-0.0069125197 -0.37446529 -0.044662677 5328461
0.0038578494 -0.37774679 -0.04182319 5066057
0.29989338 -0.37295517 -0.045467947 6905180
-0.22257145 -0.36083439 -0.045278642 6447188
-0.025053952 -0.36375204 -0.048708562 4538477
-0.013433755 -0.36599594 -0.045460794 6050405
-0.0046474966 -0.36841363 -0.043107547 5460297
0.0010203742 -0.3680661 -0.04131851 5329485
0.2303661 -0.36510181 -0.043632552 6445914
-1.1867151 -0.35743704 -0.044957932 7959151
-0.025622863 -0.35787416 -0.048047949 12170395
-0.011737641 -0.35406643 -0.043245051 12235950
0.22953103 -0.35006559 -0.04368956 6511706
-1.2005253 -0.34420696 -0.048573852 7959918
-0.0069231405 -0.34490207 -0.040465094 15461328
0.22924663 -0.34514508 -0.04335184 6249560
0.22867781 -0.33530408 -0.042676397 6314327
0.30016792 -0.33022198 -0.041071743 7167327
-1.2018369 -0.32369077 -0.046922568 7959148
-0.021672346 -0.31032974 -0.040079489 16185066
0.16446178 -0.26871544 -0.049388357 6579291
0.16502398 -0.24404788 -0.047555707 6840414
0.16591524 -0.2252803 -0.046065923 6775134
-0.52710187 -0.20862551 -0.04990077 16711423
-0.21800722 -0.2025246 -0.048408162 16448763
-0.52776581 -0.1937941 -0.049138524 16777215
-0.52861351 -0.1849813 -0.047997721 16777215
-0.5475114 -0.17627713 -0.043871857 16777215
-0.28767163 -0.17492476 -0.04796299 16711422
0.52427101 -0.17917462 -0.043110009 5262156
-0.54807323 -0.16744968 -0.043173593 16777215
-0.2174941 -0.16122106 -0.042892054 16711419
-0.29008144 -0.15050249 -0.043758348 16711422
-0.29037976 -0.14309359 -0.043321766 16777215
-0.29087701 -0.13074543 -0.042594135 16777215
-0.28973213 -0.13556349 -0.044721693 16777215
-0.11590865 -0.10218856 -0.040137876 2630436
-0.11583862 -0.091952309 -0.040239073 3091240
-0.1138024 -0.079779111 -0.040304895 3484457
-0.11273926 -0.067112066 -0.040402863 3683376
0.29164219 0.076758899 -0.048788041 3486768
0.29744187 0.083408467 -0.045678835 3486257
-0.32359958 0.20512414 -0.045550004 5920880
-0.35562876 0.22519828 -0.045887969 4402748
-0.42629609 0.24385834 -0.044426255 3486527
-0.22575775 0.24609306 -0.044606756 7367809
-0.39748743 0.27806073 -0.042484336 4668530
-0.44257143 0.33075216 -0.048648439 3683645
-1.1449636 -1.1009616 -0.03291332 9866637
-1.1454831 -1.0941361 -0.032276515 9801873
-1.1560869 -1.0843502 -0.034487557 9474443
-1.0785154 -0.91086739 -0.03148191 9867660
-1.0557226 -0.91581815 -0.036413461 9867916
-1.0390462 -0.91443133 -0.030169381 9737356
-1.0788151 -0.9049055 -0.032005481 9606028
-1.0451994 -0.90306962 -0.033289127 9539465
-1.039492 -0.90556335 -0.03094817 9605771
-1.0043118 -0.90551287 -0.038897559 9737100
-0.037779093 -0.90402043 -0.035556585 3682348
-0.081967331 -0.89768845 -0.035161205 3419947
-0.070922226 -0.89130729 -0.030992303 3354409
-0.035516173 -0.89505279 -0.033892237 3682347
-1.0575061 -0.88034612 -0.039528619 9540492
-0.99457717 -0.88364112 -0.03559364 9671305
-0.43422693 -0.88254851 -0.039626878 6841950
-0.044586234 -0.88650453 -0.035857268 3682858
-0.038919739 -0.8862949 -0.034042574 3813673
-1.0463884 -0.87942159 -0.035365898 9736582
-0.99520934 -0.87468302 -0.035974987 9605521
-0.056869753 -0.87215257 -0.038224977 3485224
-0.045346666 -0.87468755 -0.03484793 3616811
-0.039870281 -0.87152362 -0.032780904 3617836
0.025370134 -0.87086892 -0.033625659 3617066
-1.0526904 -0.86510384 -0.038745239 9409419
-1.0472802 -0.86168563 -0.036923476 9343373
-0.9958415 -0.86572498 -0.036356334 9671312
-0.062916458 -0.86645371 -0.039535001 3551016
-0.057249967 -0.86624408 -0.037720308 3485735
-0.043083742 -0.86571997 -0.033183582 3683115
0.024921523 -0.86491472 -0.03312166 3616809
-1.0475774 -0.85577357 -0.037442673 9540490
-0.99647367 -0.85676694 -0.03673768 9998222
-0.052343909 -0.85421741 -0.034896281 3419946
-0.046297204 -0.85991627 -0.033586256 3682349
0.024024302 -0.85300636 -0.032113671 3420202
0.04464535 -0.85154271 -0.039309628 3682348
-1.076207 -0.84482092 -0.03514228 9931403
-0.99710584 -0.84780884 -0.037119031 9998988
-0.052724127 -0.84830886 -0.034391608 3420201
0.023575692 -0.84705216 -0.031609677 3616299
0.044200487 -0.84563828 -0.038809843 3682605
-0.00022550707 -0.83626562 -0.037735466 3616554
-1.0134386 -0.82036644 -0.036426194 9803919
-0.43153852 -0.82521856 -0.034763604 6906977
-0.054244991 -0.82467484 -0.032372933 3616809
-1.0138127 -0.81438911 -0.036229134 9672595
-0.43285841 -0.81391907 -0.032960009 6646109
-0.08447925 -0.81595588 -0.037468832 3420458
-0.075093888 -0.81759751 -0.034062229 3617066
-0.054625209 -0.81876636 -0.031868264 3485223
-0.048958719 -0.81855667 -0.030053573 3485992
0.0096563455 -0.81486511 -0.032404594 3616553
0.030175079 -0.81076807 -0.039348222 3682348
-1.0950369 -0.80860567 -0.030852215 9472644
-1.0198964 -0.80870855 -0.037864476 9999248
-0.43397298 -0.80556017 -0.031396747 6645852
-0.092740566 -0.80341518 -0.03927356 2762273
-0.086990453 -0.80617291 -0.037374947 3420200
-0.061052129 -0.80715895 -0.032673616 3550249
0.029730218 -0.80486363 -0.038848437 3616810
-1.0206443 -0.79675382 -0.037470352 9673360
-0.43438527 -0.79965585 -0.0309142 6775901
-0.093335077 -0.79455149 -0.038546804 2630176
-0.087783128 -0.79435462 -0.036405943 3289131
-0.061812561 -0.79534197 -0.031664278 3747624
0.02928536 -0.79895926 -0.03834866 3551273
-0.093731411 -0.78864235 -0.038062308 2433311
-0.085601658 -0.78539252 -0.034608763 3288361
-0.062572993 -0.78352493 -0.030654939 3813163
0.025556576 -0.7872895 -0.038233362 3551020
-1.027476 -0.7791186 -0.038711552 10196627
-0.46815214 -0.77532154 -0.03691059 7104350
-0.32262465 -0.77690125 -0.036470328 3485738
-0.10047237 -0.77111179 -0.038749661 2170655
-0.094722256 -0.77386951 -0.036851052 2236191
-0.086394332 -0.77357423 -0.033639759 3156518
-0.06597656 -0.77476704 -0.030805282 3616554
-1.2179416 -0.76009423 -0.038182288 9014661
-1.0974549 -0.76051223 -0.035075791 9735298
-1.0228883 -0.76088965 -0.036287978 9870228
-0.32331461 -0.76496464 -0.035651051 3813933
-0.1008687 -0.7652027 -0.038265161 2236191
-0.095316753 -0.76500583 -0.0361243 2367773
-0.089764811 -0.76480901 -0.033983439 2760733
-0.0056088325 -0.76481539 -0.031687524 2761502
-1.218419 -0.75325882 -0.037623651 9277060
-1.0232623 -0.75491232 -0.036090914 9737873
-0.3236596 -0.75899631 -0.03524141 3682603
-0.30245218 -0.75529301 -0.039504245 3617067
-0.29696891 -0.75466132 -0.031046208 7170404
-0.1032478 -0.75738937 -0.038332779 2236190
-0.092276014 -0.75502604 -0.033889558 2433055
-0.085005529 -0.75279391 -0.030873576 3025704
0.0086921053 -0.75255835 -0.039656013 3485738
-0.30296531 -0.74641532 -0.038894922 3682602
-0.29686946 -0.74674201 -0.031853884 7170144
-0.10589113 -0.74563676 -0.038077395 2236190
-0.093927965 -0.74422538 -0.033358116 2301982
0.0078023854 -0.74074954 -0.038656447 3551527
0.019603493 -0.74609768 -0.035619158 3551018
-0.31959066 -0.73498088 -0.031085631 3682861
-0.30364949 -0.73457849 -0.038082492 3616811
-0.2972745 -0.73934293 -0.031792004 7235938
-0.097298436 -0.73546016 -0.033701792 2302237
0.0073575233 -0.7348451 -0.038156666 3484714
-0.29404026 -0.71358204 -0.031668387 3617326
0.011701068 -0.7168538 -0.034888785 3485483
0.57326192 -0.71276098 -0.034520987 6576472
-1.0319639 -0.70739025 -0.036346804 10064523
-0.29455337 -0.70470446 -0.031059064 3683117
0.010811348 -0.70504498 -0.033889219 3223336
0.42585558 -0.70730388 -0.035220258 6511960
-1.0327119 -0.69543552 -0.03595268 9737612
-0.48613134 -0.69059771 -0.0305875 7038815
-0.46685848 -0.69151187 -0.030328989 6907745
-0.33835194 -0.69362921 -0.035769824 2368033
-0.30029875 -0.69892699 -0.033149026 3682603
-0.21993659 -0.6987856 -0.035615928 7236193
-0.0009897612 -0.69969678 -0.036926508 2367776
0.0062844991 -0.69538969 -0.034235276 2827554
-0.7397539 -0.68265915 -0.036695149 8749178
0.0053947791 -0.68358088 -0.033235714 2892577
-1.0338339 -0.67750341 -0.035361495 9409164
0.0085870493 -0.67552292 -0.031390313 3089956
-0.48369554 -0.66552341 -0.030541109 7169633
-0.35097447 -0.66407198 -0.038756073 2499362
-0.33428299 -0.66961378 -0.031614043 2499618
0.40837389 -0.66820955 -0.032927386 6512215
-1.0408525 -0.65687954 -0.036504164 9671559
-0.35131943 -0.65810376 -0.038346436 2630176
-0.34042177 -0.65781939 -0.033311993 2433822
-0.13795099 -0.65109855 -0.031108702 3813420
-0.48435134 -0.6451717 -0.03371457 6907743
0.52938926 -0.64404452 -0.033741403 6576215
-1.0535809 -0.63655239 -0.039479222 9538697
-0.3260169 -0.62846994 -0.038259163 2433826
-0.21387549 -0.62482333 -0.031681679 7039074
-1.0550768 -0.61264294 -0.038690973 9342856
-0.48435324 -0.61132574 -0.031736556 6841693
-0.35373425 -0.6163255 -0.035478961 2631204
-0.34300908 -0.61305702 -0.030239698 2696226
-0.33244646 -0.61085564 -0.0395367 2630432
-0.32687214 -0.61367393 -0.037243627 2629920
-0.21424222 -0.61494195 -0.031713821 7235684
-0.48446846 -0.60363162 -0.033146072 6972251
-0.33278856 -0.60493726 -0.039130487 2761762
-0.32738528 -0.60479629 -0.036634307 2761248
-0.21409179 -0.60462868 -0.032619596 7367269
-1.0561988 -0.59471083 -0.038099784 9277572
-0.32806945 -0.5929594 -0.035821877 2630947
-0.3341569 -0.5812636 -0.037505627 2762019
-0.32858258 -0.58408177 -0.035212554 2762019
-0.14340538 -0.58339959 -0.039610118 2827555
-0.33990225 -0.57548612 -0.039595593 2827555
-0.34041542 -0.56660855 -0.038986269 2828067
-0.33501214 -0.56646752 -0.03649009 2827554
-0.32786477 -0.56529313 -0.033094153 2893347
-0.21140923 -0.56535643 -0.030222518 6908000
-0.14437525 -0.5655154 -0.038066544 2761503
-1.1719872 -0.55796361 -0.030120604 8421491
-1.0187883 -0.55591238 -0.037804492 9276290
-0.49799755 -0.55173945 -0.035037115 7300446
-0.34127063 -0.55181247 -0.037970733 2959653
-0.33383822 -0.55557013 -0.034913305 2827811
-0.32488975 -0.55434871 -0.030685306 2827812
-0.1279358 -0.5531565 -0.031354703 3617068
-0.11289787 -0.55134934 -0.03996085 3682092
-1.0481454 -0.54032093 -0.032661453 9078913
-1.0193447 -0.54702127 -0.037511367 8948355
-0.49839771 -0.54584515 -0.034518071 6907488
-0.3416127 -0.54589409 -0.03756452 2894370
-0.33350781 -0.54568255 -0.033820249 2762787
-0.32540289 -0.54547113 -0.030075986 2762533
-0.21232606 -0.54065293 -0.030302869 7170397
-0.12842074 -0.54421437 -0.030582912 3551533
-0.11321846 -0.54543775 -0.039450627 3748139
-0.50030398 -0.53476965 -0.031848084 6776671
-0.49879786 -0.53995085 -0.033999022 6907488
-0.34212583 -0.53701645 -0.036955196 3090721
-0.33306336 -0.53776789 -0.032862604 2893602
-0.21250942 -0.53571224 -0.03031894 7497824
-0.11369935 -0.53657043 -0.038685292 3747628
-0.50110537 -0.52296573 -0.030808643 7038811
-0.33200347 -0.52489763 -0.031150412 2762789
-0.15233365 -0.52393097 -0.036359139 2761761
-0.12014855 -0.52193564 -0.039288163 3617323
-0.1171644 -0.52481937 -0.038604058 3617324
-0.62182862 -0.51813662 -0.035335489 8025714
-0.33268765 -0.51306081 -0.030337982 3024934
-1.0334501 -0.50315452 -0.0396799 9209471
-0.34400734 -0.5044651 -0.034721017 3091238
-1.0340064 -0.49426344 -0.039386775 8883071
-0.3500948 -0.49276927 -0.036404766 3090983
-0.34626451 -0.49662089 -0.035011455 3090983
-0.33911717 -0.4954465 -0.031615518 3090727
-0.1254098 -0.49444446 -0.038159404 3287334
-0.11610377 -0.49223366 -0.034858614 3748398
-1.0572211 -0.4868215 -0.032720279 8816510
-1.0345626 -0.48537236 -0.039093655 8947324
-0.35043687 -0.48685086 -0.035998549 3287847
-0.34503359 -0.48670986 -0.033502374 3222310
-0.20831956 -0.48018008 -0.031471323 7300703
-0.13352785 -0.4837988 -0.039728567 2696226
-0.12505625 -0.48358256 -0.036910921 3156518
-1.26026 -0.47275072 -0.038174246 8422007
-1.0351189 -0.47648129 -0.03880053 8815231
-1.0296423 -0.47322324 -0.036885753 8881532
-0.64799339 -0.47673601 -0.038638022 8026993
-0.13400874 -0.47493145 -0.038963232 2827554
-0.029982267 -0.47758302 -0.03894943 3353641
-1.058717 -0.46291205 -0.03193203 8815481
-1.0301987 -0.46433213 -0.036592633 8750205
-0.13432933 -0.46901989 -0.038453009 2696484
-0.12617832 -0.46289212 -0.035125144 3156005
-1.0517632 -0.45869115 -0.036178995 7960948
-1.0345916 -0.45464936 -0.037478317 8815227
-0.1266592 -0.45402473 -0.034359805 3090212
-0.11818761 -0.45380849 -0.031542163 3551019
-1.1017599 -0.44316086 -0.035704955 8356213
-1.0428207 -0.44417498 -0.03954282 8488568
-1.0333222 -0.44467232 -0.036546942 8356469
-1.0256494 -0.44625562 -0.034189317 8226425
-0.64469767 -0.44104028 -0.033995777 7763313
-0.46482065 -0.44246754 -0.039162446 6578522
-0.12431622 -0.44508532 -0.032655258 2959654
-1.0348841 -0.43484235 -0.036524095 8488309
-1.0263911 -0.43440083 -0.033798486 8553080
-1.1027324 -0.42948335 -0.034690443 8224375
-1.0966102 -0.42231676 -0.032268289 8027509
-1.0344349 -0.42689013 -0.035960693 8356470
-1.0269475 -0.42550975 -0.033505365 8356471
-0.13124631 -0.42158324 -0.032492794 3090727
-1.2577552 -0.41094139 -0.031172546 8093554
-1.1037048 -0.41580585 -0.033675924 8224625
-1.0970964 -0.41547802 -0.031761032 7962738
-1.0361822 -0.4140965 -0.035840143 8290933
-0.19158992 -0.41258827 -0.03823128 5524548
-0.12591916 -0.41552749 -0.030104142 3091237
-1.0395694 -0.40535259 -0.036455553 8421747
-0.19075601 -0.40863636 -0.039734103 5721157
-0.13220808 -0.40384853 -0.030962121 3091496
-0.022101978 -0.40199894 -0.03951392 3617843
-0.015812617 -0.40757594 -0.038375985 3552305
-1.2209383 -0.39837044 -0.033089232 8026483
-1.2148702 -0.39129546 -0.030291049 8157555
-1.0289872 -0.39290908 -0.032430585 8290681
-0.1907064 -0.39371592 -0.035284154 5523262
-0.022675684 -0.39607149 -0.038847737 3879990
-1.0463439 -0.38786477 -0.037686381 8159346
-0.46408832 -0.38994735 -0.030422119 5460291
-0.20236714 -0.38271397 -0.039882198 5061948
-0.19062211 -0.38733184 -0.035752751 5589312
-0.023823099 -0.38421661 -0.037515372 4604485
-0.011818087 -0.38944316 -0.034573317 4012606
-1.0414237 -0.37571561 -0.03547848 8028021
-0.2025767 -0.37829614 -0.039383374 4800573
-0.030686166 -0.37271214 -0.037987128 5460814
-1.0421654 -0.36386085 -0.035087649 8223350
-0.020402275 -0.36015636 -0.033046525 11513263
0.0066882451 -0.36771861 -0.039529473 5129804
-1.0425363 -0.35793346 -0.034892235 8290421
-0.19031544 -0.35321665 -0.032703526 5327425
-0.18987468 -0.35912248 -0.03308399 5458243
-0.020975983 -0.35422891 -0.032380342 12828346
-0.00011744754 -0.35631034 -0.039997283 10854323
0.30176586 -0.35215256 -0.0398288 6642523
-1.0326959 -0.33363518 -0.030476436 8223603
-0.0074920515 -0.33902416 -0.039804481 13352673
0.59159887 -0.33919495 -0.039375529 6051926
-1.0330667 -0.3277078 -0.030281022 8026994
-0.2014645 -0.32165289 -0.034425884 5593425
-0.20278648 -0.31194264 -0.03142665 5725013
-0.18817171 -0.31776762 -0.032655485 5194814
-0.0097676953 -0.3155126 -0.037162028 14407915
-1.0402122 -0.30429256 -0.031316433 8027249
-0.20181341 -0.30521813 -0.03352166 6445394
-0.012605169 -0.30583194 -0.036657352 15987443
-0.0052376464 -0.30340928 -0.034051768 15922164
-1.2148885 -0.29069835 -0.034352899 7959663
-1.0407684 -0.29540148 -0.031023309 7698289
-0.023379078 -0.29269606 -0.03809765 15529462
-0.011474428 -0.29787892 -0.035180192 15523291
-0.0060910126 -0.29459244 -0.033060849 15132131
0.30394039 -0.292907 -0.033316929 6971742
-1.0434593 -0.28265694 -0.031205602 7961202
-0.18708001 -0.28329816 -0.030912034 5260868
-0.024516899 -0.28094026 -0.036776423 16316919
0.30357966 -0.28700584 -0.0328025 6841182
-1.0420665 -0.27465561 -0.030339358 7829871
-1.0480993 -0.26902258 -0.031961013 7699824
0.30407274 -0.2508387 -0.031084463 6906207
-0.2432811 -0.23298238 -0.03138354 3354165
0.30323735 -0.23876078 -0.031085784 6775646
-0.58001494 -0.1934495 -0.032432187 16777215
-0.5472815 -0.15321109 -0.034029149 16777215
0.52276355 -0.15477563 -0.038848273 5064518
-0.54784596 -0.14434339 -0.033327702 16777215
0.52211571 -0.14493048 -0.037990585 5064004
-0.54841042 -0.13547568 -0.032626256 16777215
-0.055409629 -0.13170472 -0.03091841 4800571
-0.11775733 -0.11572275 -0.038052216 4406328
0.039590858 -0.11702886 -0.034146186 7893357
-0.11669252 -0.10393815 -0.038141243 3350815
0.040771391 -0.10497177 -0.033734504 7958892
-0.11561427 -0.090188384 -0.038249698 3287850
0.041842926 -0.092204593 -0.033833247 7892846
-0.11456962 -0.081351556 -0.038309585 3550249
0.042890932 -0.082876474 -0.033897988 7894125
0.043727729 -0.068877786 -0.035016134 7828332
-0.30879205 -0.03396523 -0.030282594 3618621
-0.025308108 -0.035856977 -0.031199409 4211809
-0.023401689 -0.022037216 -0.031389352 4210255
-0.051891129 -0.0099182492 -0.031599272 3881795
-0.039025739 0.014306686 -0.031386331 7107201
-0.11443573 0.0284345 -0.031816404 3750207
0.14465506 0.020598631 -0.031284742 3680814
-0.10342944 0.036491163 -0.039186087 5066848
0.053528957 0.033495598 -0.034773689 6248267
-0.27279025 0.057202693 -0.033951137 7434367
-0.19835486 0.078775316 -0.037469152 3026738
-0.19865055 0.08270596 -0.037527736 3091506
0.37195048 0.10450555 -0.035918057 4341820
0.37081656 0.11263257 -0.039471846 5591875
0.37384483 0.12657401 -0.034774385 4868153
0.37376639 0.13417923 -0.033128835 4934203
-0.39305556 0.2108897 -0.03107316 7435136
-0.23895274 0.21958004 -0.035396114 7766417
-0.28609329 0.26968712 -0.033844955 7567499
-0.42875588 0.32725433 -0.030396096 7169130
-1.1417904 -1.0562946 -0.026663279 9540749
-1.1305091 -1.0318023 -0.020212816 9869964
-0.35367298 -0.97335225 -0.02369087 6775133
-1.0557929 -0.91496456 -0.022562718 9737864
-1.0619981 -0.90350699 -0.025708765 9670027
-1.0622979 -0.89754516 -0.026232336 9671560
-0.30600086 -0.89705753 -0.023795281 6316633
-1.0575914 -0.87919348 -0.025704142 9605001
-0.90389508 -0.87345433 -0.021645539 9408131
-0.8998279 -0.87725258 -0.020953421 9211266
-0.072072491 -0.87343234 -0.029465532 3486506
-0.90628254 -0.86564493 -0.02148884 9604490
-0.061410811 -0.86109287 -0.024787707 3420201
-0.9357245 -0.85488939 -0.028188027 9277826
-0.92423081 -0.85446334 -0.025106143 9670275
-0.91561055 -0.85414386 -0.022794731 9669513
-0.90681332 -0.85677946 -0.020734698 9539977
-0.034964226 -0.85949695 -0.029956875 3878699
-0.93236512 -0.84686691 -0.026490383 9473670
-0.92476165 -0.84559786 -0.024351999 9539462
-0.91326797 -0.84517187 -0.021270115 9539975
-0.056846816 -0.84300649 -0.021430947 3485227
-0.035914764 -0.84472573 -0.028695203 3748141
0.028853076 -0.84081751 -0.029322237 3682861
-0.93319082 -0.83307624 -0.025317272 9408651
-0.92529243 -0.83673239 -0.023597857 9277068
-0.057230238 -0.83704817 -0.020922024 3616554
-0.93749386 -0.82533783 -0.025674218 9606027
-0.03705541 -0.8270002 -0.027181197 3748138
-0.94377148 -0.81668544 -0.02646102 9670539
-0.045434535 -0.81447792 -0.028507331 3551273
-0.037625737 -0.81813741 -0.026424192 3748139
-0.94447923 -0.80486476 -0.025455497 9802123
-0.091514938 -0.80722696 -0.025230508 3354667
-0.070575863 -0.80767941 -0.022037383 3812650
-0.050099362 -0.8008312 -0.028539568 3681833
-0.044242762 -0.80357581 -0.026977211 3682346
-0.94501007 -0.79599935 -0.024701355 9866890
-0.044813089 -0.79471302 -0.026220206 3550763
-0.039146602 -0.79450339 -0.024405515 3748139
0.025712803 -0.79913825 -0.02579427 3747371
-0.098312728 -0.78954864 -0.02592366 2302239
-0.053693041 -0.78911901 -0.028437575 3616555
-0.045383412 -0.78585029 -0.025463205 3682346
-0.039526816 -0.7885949 -0.02390085 3748139
0.0071889879 -0.78211707 -0.029632619 3682090
-0.07271263 -0.77012753 -0.028045356 3486251
-0.48524392 -0.7602998 -0.02656899 7366496
-0.43174008 -0.7644608 -0.025218293 6972512
-0.073108964 -0.76421845 -0.027560856 3813420
-0.067358851 -0.76697618 -0.025662243 3617324
-0.058047149 -0.76558983 -0.027326245 3812651
-0.43066722 -0.75717521 -0.027267028 7038047
-0.073703468 -0.75535476 -0.026834104 3617068
-0.06623482 -0.75607711 -0.02406037 3551533
-0.080246255 -0.74077874 -0.027763711 3617067
-0.074496135 -0.74353647 -0.0258651 3747883
-0.067027487 -0.74425888 -0.023091368 3682346
-0.075090647 -0.73467278 -0.025138346 3682345
-0.069538698 -0.73447591 -0.022997485 3682602
-0.48409069 -0.72046745 -0.027583929 6973280
-0.48473293 -0.71309817 -0.028114613 6842976
-0.076477826 -0.71399081 -0.023442591 3551015
0.0018056647 -0.71066689 -0.023584679 2828067
-1.0432789 -0.70703101 -0.026268495 9410443
-0.48532557 -0.7030704 -0.029263023 7038559
-0.29526964 -0.70011705 -0.028963057 7301731
-0.085400254 -0.70542228 -0.025927128 2892575
-0.076621272 -0.70245594 -0.025113022 2762019
-0.065753706 -0.70467496 -0.023321124 3288361
-0.48623151 -0.6959033 -0.029352877 6776673
-0.08513549 -0.69554096 -0.024762817 2499105
-0.075705692 -0.69716251 -0.023565467 2828581
-0.065442979 -0.69479251 -0.022177562 3091496
-0.095313519 -0.68208104 -0.027200416 2302241
-0.08381328 -0.68759656 -0.023403198 2564641
-0.067021094 -0.68497998 -0.021638894 3090981
-0.00043738741 -0.68089592 -0.021064702 2761249
-0.69175661 -0.67121655 -0.025637256 8355706
-0.094123423 -0.67216688 -0.025679292 2301985
-0.084605955 -0.67577827 -0.022434194 2629919
-0.00088599784 -0.67494178 -0.020560708 2695712
-1.1627246 -0.66424608 -0.022466823 8815486
-1.1572218 -0.66360939 -0.020284973 8880504
-0.32900667 -0.66648746 -0.028892003 2630433
-0.093726553 -0.66425526 -0.024676483 2236448
-0.085002296 -0.66986912 -0.02194969 2433569
0.57446343 -0.66292095 -0.029624933 6511451
-1.2123417 -0.65360844 -0.024992075 9143423
-1.1634965 -0.65538919 -0.023104638 8422779
-1.1579938 -0.65475249 -0.020922787 8487545
-0.34608421 -0.65117681 -0.020921368 2433570
-0.32952413 -0.65753508 -0.028277548 2761245
-0.10284714 -0.65273225 -0.026918773 2367777
-0.085794963 -0.65805084 -0.020980688 2433314
-0.073580876 -0.6565969 -0.020711906 2499105
0.018386289 -0.65430129 -0.026104007 3550761
0.42704734 -0.65308499 -0.029174544 6249818
-1.1642684 -0.64653236 -0.023742454 8422266
-1.1587656 -0.64589566 -0.021560604 8618618
-0.29384062 -0.64063621 -0.026838612 7104867
-0.10324349 -0.64682311 -0.026434269 2498592
-0.077364661 -0.64193046 -0.020357579 2498849
0.012040874 -0.64572281 -0.02712287 2959139
0.42673317 -0.64817065 -0.028779002 6314072
-1.154292 -0.63344979 -0.020229172 8617339
-0.4666107 -0.63347971 -0.021318469 6907232
-0.29411083 -0.63569969 -0.026797328 7235938
-0.13318601 -0.63291824 -0.027642123 3812906
-0.083791584 -0.63032311 -0.021162931 2565153
0.0054730298 -0.63419211 -0.027891841 2630434
0.014435077 -0.63967931 -0.02573882 3156006
-1.2079904 -0.62258059 -0.020212535 8685176
-1.1608239 -0.62227732 -0.023261443 8291193
-1.1548066 -0.62754524 -0.020654382 8486523
-0.46717966 -0.62460947 -0.020654742 6907743
0.00480574 -0.62533545 -0.027142169 2761506
-1.1613386 -0.61637276 -0.023686653 8618360
-0.46621189 -0.61458278 -0.022522343 7169629
-1.1563504 -0.60983145 -0.021930013 8552311
-0.33807772 -0.60396236 -0.027108015 2761761
0.40929407 -0.60901427 -0.026635062 6117977
0.57527256 -0.60430634 -0.021762479 6511450
-1.1523914 -0.59148103 -0.021023791 8159607
-0.2918711 -0.59102851 -0.024796743 7104611
-0.10086222 -0.59935319 -0.020417396 2565153
0.0082595646 -0.5955354 -0.022874726 2827041
0.42792493 -0.59395176 -0.02273328 6642266
0.57475847 -0.59694052 -0.02106991 6511448
-1.1639115 -0.58684981 -0.025812704 8487288
-1.1559148 -0.58294249 -0.022752535 8355700
-0.34456146 -0.58619958 -0.02839632 2827298
0.013270399 -0.58640063 -0.020356515 2826784
0.53023803 -0.58544117 -0.026216064 6511449
0.57424438 -0.58957464 -0.02037734 6183002
-1.1555979 -0.5759477 -0.022884971 8355701
-1.1484324 -0.57313055 -0.020117573 8355958
0.006702553 -0.57486993 -0.021125488 2761506
-1.1829605 -0.56704438 -0.020168429 8224885
-1.1632185 -0.56291312 -0.026422618 8355446
-1.1564555 -0.56610674 -0.023593655 8289911
-1.1492043 -0.56427372 -0.020755388 8093813
-0.3188023 -0.56604457 -0.029001556 2893345
0.41115347 -0.56457543 -0.021509992 6380119
-1.161239 -0.55373794 -0.025969509 8355445
-1.1499763 -0.55541682 -0.021393202 8093302
-0.35208014 -0.55053192 -0.028455706 2959140
-0.33538866 -0.55607367 -0.021313678 2762532
-0.31774241 -0.55317432 -0.027289366 2893347
-0.11493865 -0.55542839 -0.021065358 2959651
0.41068387 -0.55719715 -0.020926362 6445144
-1.1620109 -0.54488105 -0.026607323 8094070
-1.1526681 -0.54578811 -0.022829169 8158581
-0.3524251 -0.54456359 -0.028046068 3090468
-1.1570227 -0.53833979 -0.024850683 8420467
-0.32574499 -0.53955269 -0.029669771 2893348
-0.29044205 -0.53154767 -0.022672297 7038818
-1.1921422 -0.52600592 -0.025370235 8028020
-0.29098254 -0.52167451 -0.02258973 7039073
-0.13605584 -0.50859135 -0.029390028 2631205
-0.33371392 -0.49530554 -0.029119337 3090726
-0.32656658 -0.49413118 -0.025723398 3089957
-0.20930971 -0.4960081 -0.028795507 7039078
-0.49852061 -0.4846015 -0.02467351 6775901
-0.33439809 -0.48346871 -0.028306909 3156520
-0.32629317 -0.4832572 -0.024562642 3024935
-0.49884585 -0.47558564 -0.024304034 6775133
-0.33491123 -0.47459108 -0.027697586 3157031
-0.32680631 -0.4743796 -0.023953319 3025190
-0.28862879 -0.47438508 -0.021007374 6776158
-0.97147334 -0.46972603 -0.021290611 8619897
-0.33368027 -0.46468005 -0.026188502 3091495
-0.32636189 -0.46646485 -0.022995671 3090726
-1.0533813 -0.45663786 -0.029902579 8946554
-0.33340693 -0.4538061 -0.025027746 3156776
-0.325302 -0.45359462 -0.021283479 3222056
-0.11270016 -0.45070857 -0.029408623 3879215
-1.2426527 -0.44467983 -0.028943481 8617078
-0.32581511 -0.44471702 -0.020674158 3157289
-0.13375506 -0.44585127 -0.022093251 2893861
-0.9680568 -0.43962443 -0.020651184 8684153
-0.33696377 -0.43908057 -0.025260299 3353896
-0.2054932 -0.43071049 -0.029983513 6841440
-0.13424 -0.43690914 -0.021321462 3090214
-0.11334134 -0.43888545 -0.028388174 3683374
-0.97451901 -0.42828488 -0.023169046 8618361
-0.96892703 -0.42778409 -0.021187879 8552572
-0.11979055 -0.42425069 -0.028991045 3287078
-1.2383925 -0.41023692 -0.023989491 8157811
-1.0483465 -0.41060042 -0.029941345 8093039
-0.33292884 -0.41526592 -0.021139264 3616557
-1.0565603 -0.40583026 -0.028227549 8355953
-1.0291018 -0.40301129 -0.023135923 8025455
-0.96464032 -0.4095228 -0.020011757 8355962
-0.33344197 -0.40638828 -0.020529943 3551277
-0.12623976 -0.40961593 -0.029593917 3222054
-0.11526488 -0.40341604 -0.025326833 3222058
-1.2392702 -0.3965537 -0.022965636 8092532
-1.2083668 -0.39106005 -0.028033888 8091763
-1.0571213 -0.39686421 -0.027931957 8224630
-0.96551049 -0.39768249 -0.020548452 8551282
-0.33952942 -0.39469242 -0.02221369 3617326
-0.13284926 -0.39202538 -0.029941674 3288106
-0.11292189 -0.39447662 -0.023622284 3289131
-1.2088021 -0.38422048 -0.027492868 7960945
-1.0863109 -0.38062859 -0.02539495 8091251
-0.97219026 -0.38338286 -0.023200488 8355447
-0.96638072 -0.38584214 -0.021085147 8552053
-0.46446437 -0.38403937 -0.029954789 5129530
-0.34004256 -0.38581482 -0.021604368 3748656
-0.11622665 -0.38568136 -0.023796163 3222314
-1.2094551 -0.37396109 -0.026681336 8026995
-1.0867971 -0.37378982 -0.024887692 8484724
-0.97284287 -0.37450257 -0.023603009 8420985
-0.96725088 -0.3740018 -0.021621844 8290935
-0.20456058 -0.37213358 -0.025893262 6774620
-0.12251556 -0.3740024 -0.024654146 3419179
-0.11654724 -0.3797698 -0.02328594 3222570
-1.2479185 -0.36258045 -0.022800351 7896691
-1.0872834 -0.36695108 -0.024380434 8092021
-1.0422361 -0.36010951 -0.021252403 8354929
-1.0138556 -0.36238909 -0.026002299 8158069
-0.96790355 -0.36512154 -0.022024365 8223861
-0.12493246 -0.36419782 -0.024429917 3354156
-0.053321127 -0.36544609 -0.025484091 2828069
-1.04261 -0.35413215 -0.021055341 8093042
-1.0259212 -0.35112301 -0.029245609 8027511
-1.0198884 -0.35675603 -0.027623955 8093556
-0.96877372 -0.35328123 -0.02256106 8355700
-0.11815019 -0.35021198 -0.020734822 3419950
-1.2552503 -0.34913203 -0.024170846 8092786
-1.224421 -0.34365365 -0.028761057 8222320
-1.0821338 -0.34610698 -0.020943765 8157555
-1.045012 -0.34626129 -0.021403393 8223347
-1.0262921 -0.34519562 -0.029050196 8224370
-0.11847077 -0.34430042 -0.020224599 3420206
-0.051452339 -0.34373644 -0.025858948 3222056
-1.2496737 -0.33521399 -0.020752639 7895156
-1.0248994 -0.33719429 -0.028183952 8224626
-1.012879 -0.33260494 -0.024116689 8027249
-0.98663747 -0.33998314 -0.029175427 8028020
-0.051471155 -0.33979154 -0.025951406 3156520
-1.2192236 -0.32289949 -0.024880832 7828846
-1.0245738 -0.32726628 -0.027555415 7830643
-1.0160809 -0.32682472 -0.02482981 7896434
-0.96513969 -0.32613969 -0.021787459 8027251
-0.18967821 -0.32353082 -0.029939651 5065282
-0.049583554 -0.32202685 -0.026233805 3156518
-1.2131555 -0.31582451 -0.022082653 7763309
-1.0566474 -0.3128843 -0.023340698 8223601
-1.0281465 -0.31555864 -0.028073121 7830125
-0.97160184 -0.31480014 -0.024305319 8223600
-0.019276282 -0.31238633 -0.025912946 16118251
-1.2200942 -0.30922028 -0.02379879 7764336
-1.2135907 -0.30898491 -0.021541631 7697776
-1.0573955 -0.30092958 -0.022946574 7830388
-1.0345502 -0.3039982 -0.029499361 8157810
-1.0285174 -0.30963126 -0.027877707 8026734
-0.97762895 -0.30938074 -0.026554834 7961969
-0.96644497 -0.3083792 -0.022592502 8157552
-0.025852494 -0.30384561 -0.026717791 15987954
-1.2144614 -0.2953057 -0.020459587 7566447
-1.0577694 -0.29495221 -0.022749512 7830131
-1.0352919 -0.29214343 -0.029108532 7895668
-1.0266135 -0.2946656 -0.026480634 8091761
-1.0152895 -0.29407689 -0.022846494 8222833
-1.0067966 -0.29363537 -0.020120889 8156529
-0.032428708 -0.29530489 -0.027522637 14664918
0.0052447291 -0.29389742 -0.029482774 16052978
-1.0581434 -0.28897485 -0.022552449 7961201
-1.0328318 -0.28606886 -0.028004583 8026227
-1.0243388 -0.28562734 -0.025278976 8091247
-1.0158459 -0.28518581 -0.022553371 8156784
-1.0647881 -0.27432829 -0.023892183 7764338
-1.0190477 -0.27940559 -0.023266492 7829617
-0.045860089 -0.27564895 -0.027052864 2828325
-0.043986596 -0.25492555 -0.027404608 3091498
-0.24483548 -0.23058863 -0.028282523 4080192
-0.24578603 -0.18017462 -0.025420999 16382458
-0.2470151 -0.17451411 -0.022894682 16579580
-0.22932871 -0.17449686 -0.028853446 16053494
-0.24824491 -0.16883829 -0.020366637 16645885
0.53690773 -0.1654956 -0.020461489 6445656
-0.58160275 -0.15289371 -0.02071199 16777215
-0.059138428 -0.15111251 -0.025466871 4602934
0.097975291 -0.1556787 -0.025822937 8486265
-0.58200371 -0.1469879 -0.020191932 16777215
-0.058231708 -0.14831513 -0.027529716 4471862
0.099453926 -0.14092791 -0.026574787 8551543
-0.05669146 -0.13423255 -0.027864574 4538168
0.099283569 -0.13956997 -0.027609689 8682105
0.1012677 -0.13143617 -0.024794234 8682873
-0.056112036 -0.12468788 -0.026094217 4867129
0.10264364 -0.1216594 -0.025024498 8617850
-0.054696891 -0.11392953 -0.026348311 5063997
0.1027809 -0.11822385 -0.025107907 8813945
-0.053747173 -0.10947601 -0.028451534 5196606
-0.026014522 -0.038467005 -0.029181946 4145482
-0.30925319 -0.014571326 -0.027346414 5133400
0.1731656 -0.0050140554 -0.028218767 5919303
0.11653692 0.0041225143 -0.028014377 7103568
0.17434797 0.0057462007 -0.028249683 5459009
0.17431788 0.011997024 -0.025774131 5591112
-0.11313173 0.056891885 -0.027492691 3618115
-0.19342276 0.097669341 -0.026338257 3158327
0.26890129 0.09493608 -0.029374754 4934205
0.31069866 0.093808338 -0.02250935 4538687
-0.19353256 0.10160811 -0.026215456 3421244
0.44640368 0.12048087 -0.020323914 4670274
-0.21866024 0.16805898 -0.028631998 3158324
0.48449954 0.19752976 -0.027911551 4209209
0.029524701 0.20140716 -0.024927206 4145210
0.48418343 0.20244204 -0.027491976 4143158
-0.4241097 0.32757345 -0.028685493 8027506
-0.14161471 0.32456172 -0.02208613 5593190
-1.255904 -1.0975325 -0.013980336 9671816
-1.274565 -1.0640819 -0.017283875 9672332
-1.3120372 -0.95171154 -0.013336402 9867663
-1.1536365 -0.94382513 -0.017211458 10064783
-1.1508811 -0.93684888 -0.015519243 9869198
-1.1385608 -0.92600763 -0.010342384 9802637
-1.0836414 -0.92235768 -0.018704761 9998223
-1.1469287 -0.90242004 -0.010224403 9802123
-0.3529512 -0.90823835 -0.015816869 6907228
-0.90053564 -0.86543196 -0.019947898 9605254
-0.043884605 -0.86641699 -0.019806663 3813419
-0.90106642 -0.85656649 -0.019193755 9343109
-0.35040471 -0.85388184 -0.010738818 6907232
-0.044651449 -0.85450029 -0.018788815 3616813
-0.93371373 -0.84039485 -0.013631579 9998478
-0.928105 -0.84018022 -0.011646087 9932941
-0.89333087 -0.8414712 -0.01562544 9604997
-0.30487022 -0.84489775 -0.015533059 6907231
-0.92832541 -0.83424217 -0.011665402 9672333
-0.90230501 -0.8358804 -0.017434089 9670790
-0.89655817 -0.83566737 -0.015893148 9736583
-0.30438384 -0.83790052 -0.016697004 6775135
-0.051899396 -0.83087844 -0.01858311 3617321
-0.90265888 -0.82997012 -0.016931331 9737096
-0.9037205 -0.81223917 -0.015423045 9671308
-0.89761978 -0.81793654 -0.014384867 9605770
-0.91017509 -0.80063158 -0.015958464 9409676
-0.90982121 -0.80654192 -0.016461227 9539725
-0.91052896 -0.79472131 -0.015455705 9671050
-0.060297608 -0.78938162 -0.016850634 3615531
-0.049252503 -0.78300047 -0.012681731 3682347
-0.90045077 -0.77065408 -0.010362776 9541001
-0.072876394 -0.7719295 -0.018983841 3812393
-0.068312399 -0.75384313 -0.015627082 3551275
-0.057642128 -0.74590051 -0.019684765 3747626
0.0002875205 -0.74002653 -0.013544325 3091753
-0.085113563 -0.73532254 -0.015049656 3157543
-1.1408131 -0.72433412 -0.011456569 8815742
-0.079914488 -0.72916508 -0.012402159 3616808
-0.95319927 -0.71837306 -0.010020006 9868429
-0.076710604 -0.71234632 -0.013894608 2630946
-1.1371114 -0.70303136 -0.010762954 9143165
-1.1436434 -0.69185895 -0.013795224 8488573
-1.1376259 -0.69712681 -0.011188163 9013117
-0.072313048 -0.69311196 -0.019605974 3420458
-1.1501753 -0.68068647 -0.016827494 8815995
-1.1441579 -0.68595433 -0.014220433 8880765
-0.43169224 -0.68446845 -0.016741384 6775900
-0.088310987 -0.68765092 -0.011140967 2695199
-0.057703681 -0.68266106 -0.018446188 3420202
-1.1680707 -0.67358083 -0.010249884 8815738
-1.1506898 -0.67478186 -0.017252704 8816509
-0.4318158 -0.67520082 -0.016866645 6710364
-0.058083896 -0.67675257 -0.01794152 3616809
-1.1514618 -0.66592503 -0.017890519 8815487
-1.1459589 -0.66528833 -0.015708668 8814717
-1.0688723 -0.66463435 -0.018510474 9474696
-0.10670596 -0.66441059 -0.015663352 2368032
-0.064510822 -0.66514522 -0.018746873 3157033
-1.1527482 -0.65116352 -0.018953543 8553592
-1.1469882 -0.6534791 -0.016559087 8618618
-1.0696328 -0.65247971 -0.018109757 9474184
-0.96357733 -0.65375203 -0.014952999 9474698
-0.95518935 -0.65300083 -0.011981249 9670278
-0.34058982 -0.65103346 -0.018383102 2368289
-0.13579594 -0.65620035 -0.017173102 3682089
-0.080639355 -0.65194488 -0.018355327 2498847
-0.070937738 -0.65353781 -0.019552225 2564898
0.014497545 -0.65028363 -0.013194392 3485736
-1.1532629 -0.64525896 -0.019378753 8814712
-1.1439199 -0.64616603 -0.015600599 8748921
-0.96422994 -0.64487177 -0.01535552 9605258
-0.95605952 -0.64116049 -0.012517946 9801864
-0.071508065 -0.64467508 -0.018795222 2630177
-1.1537775 -0.63935441 -0.019803964 8618874
-1.1482747 -0.63871771 -0.017622113 8683643
-0.96510017 -0.63303143 -0.015892215 9473672
-0.95649463 -0.63524038 -0.012786292 9604233
-0.074911632 -0.63591713 -0.018945564 2433569
-0.0038019656 -0.63623953 -0.01728474 2564641
-1.1782901 -0.6206336 -0.016309278 8815477
-0.96016079 -0.62365037 -0.014313571 9931657
-0.95614272 -0.62726331 -0.012813896 9474185
-0.94875932 -0.62560892 -0.010217065 9408391
-0.08817298 -0.62259603 -0.018073678 2498848
-0.066982225 -0.62673992 -0.015466524 2695970
0.0065284981 -0.62079316 -0.012457861 2696227
-1.17326 -0.61403722 -0.014537829 8486522
-0.96360946 -0.61502051 -0.015706675 9276807
-0.95522147 -0.61426938 -0.012734926 9409158
-0.94962949 -0.61376858 -0.01075376 9408645
-0.067552544 -0.61787713 -0.014709522 2565157
0.0060798898 -0.61483902 -0.011953868 2761507
-0.96727562 -0.60343057 -0.017233955 9212295
-0.95307809 -0.60513872 -0.012146865 9276294
-0.29964399 -0.60849595 -0.011182963 4867136
-0.074169576 -0.60331553 -0.01526254 2695970
-0.065479733 -0.60595536 -0.012792839 2827042
0.0056312797 -0.60888481 -0.011449873 2565156
-0.9623363 -0.59404957 -0.015655309 9538437
-0.95115232 -0.59304798 -0.011692978 9670276
-0.43057168 -0.5975017 -0.010346195 6841437
-0.10125856 -0.59344405 -0.019932894 2565154
-0.093723856 -0.59515125 -0.017239913 2564639
-0.084602714 -0.59285349 -0.013510311 2499616
-0.00099193712 -0.5972569 -0.012225328 2761506
-1.1446519 -0.58462137 -0.018176228 8159352
-0.96277142 -0.5881294 -0.015923657 9539459
-0.95460093 -0.58441812 -0.013086082 9538179
-0.10185306 -0.5845803 -0.019206142 2827553
0.012825539 -0.58049619 -0.019856734 2695970
0.57390165 -0.58466411 -0.019915627 6445403
-1.1821821 -0.57597589 -0.019525237 8683383
-1.1479179 -0.57903516 -0.019692363 8354680
-0.96687269 -0.57061929 -0.017719284 9211007
-0.9580496 -0.57578826 -0.014479186 9277313
-0.46431458 -0.5737828 -0.015671222 7104351
-0.19933584 -0.57317591 -0.019093823 5457472
-0.081927255 -0.57102835 -0.01430155 2761762
-0.074245192 -0.57271832 -0.012050185 2761762
-0.0045455066 -0.57551843 -0.010971827 2696483
0.015219741 -0.57445276 -0.018472686 2958115
-0.96451175 -0.56444871 -0.016997049 9079940
-0.46437234 -0.56456745 -0.015855614 6972766
-0.12469798 -0.56350541 -0.011675208 3156005
